# .PCD v0.7 - Point Cloud Data file format
VERSION 0.7
FIELDS x y z  intensity channel_number timestamp
SIZE 4 4 4 1 1 2
TYPE F F F U U I
COUNT 1 1 1 1 1 1
WIDTH 1333
HEIGHT 1
VIEWPOINT 0 0 0 1 0 0 0
POINTS 1333
DATA ascii
40.8456 -54.1842 0.118429 98 116 443
38.5339 -51.1176 0.223454 98 117 443
28.5172 -37.8298 0.256322 99 118 443
22.353 -29.6527 0.26573 99 119 443
13.107 -17.3873 0.197621 98 120 443
12.3363 -16.3649 0.221773 97 121 443
16.1882 -21.4747 0.342657 97 122 443
13.1062 -17.3862 0.315427 96 123 443
13.1058 -17.3857 0.357227 97 124 443
13.1054 -17.3851 0.395226 98 125 443
14.6456 -19.4283 0.488402 99 126 443
14.6451 -19.4276 0.530865 97 127 443
15.4147 -20.4486 0.607953 97 128 443
15.4141 -20.4477 0.652646 95 129 443
16.9537 -22.4902 0.771945 93 130 443
16.1827 -21.4674 0.783798 96 131 443
19.2623 -25.5526 0.994446 95 132 443
17.721 -23.5081 0.96631 95 133 443
16.1798 -21.4635 0.933931 95 134 443
16.1788 -21.4622 0.980842 94 135 443
15.4077 -20.4393 0.983304 95 136 443
16.1765 -21.4592 1.07934 94 137 443
16.1752 -21.4575 1.13094 93 138 443
16.174 -21.4559 1.17783 93 139 443
16.1726 -21.454 1.22942 91 140 443
13.8624 -18.3894 1.09408 93 141 443
20.0176 -26.5546 1.64387 93 142 443
25.4023 -33.6978 2.1599 96 143 443
nan nan nan 0 144 443
28.4748 -37.7736 2.59501 95 145 443
34.6258 -45.9333 3.26635 91 146 443
33.8532 -44.9083 3.29195 92 147 443
30.7729 -40.8222 3.09091 93 148 443
33.0766 -43.8783 3.41857 94 149 443
32.3037 -42.8529 3.44213 94 150 443
32.3 -42.848 3.53578 95 151 443
31.5272 -41.8228 3.55218 94 152 443
32.292 -42.8374 3.73243 91 153 443
35.3618 -46.9097 4.20059 91 154 443
33.8205 -44.865 4.11607 92 155 443
34.584 -45.8778 4.3199 92 156 443
34.5794 -45.8717 4.42017 93 157 443
33.038 -43.827 4.32914 93 158 443
32.2654 -42.8021 4.32205 93 159 443
31.4924 -41.7767 4.31962 92 160 443
32.2556 -42.7891 4.51848 86 161 443
32.2503 -42.7821 4.62135 91 162 443
34.548 -45.8302 5.05153 89 163 443
34.5421 -45.8223 5.16171 93 164 443
31.4675 -41.7437 4.79425 93 165 443
24.5576 -32.5772 3.82049 89 166 443
18.4174 -24.4319 2.91912 88 167 443
11.5121 -15.2716 1.8617 89 168 443
9.97667 -13.2347 1.6426 82 169 443
9.97476 -13.2321 1.67442 85 170 443
9.97298 -13.2298 1.70334 86 171 443
13.8025 -18.3099 2.4019 84 172 443
16.8647 -22.372 2.98421 87 173 443
16.8612 -22.3674 3.03799 87 174 443
17.6238 -23.3791 3.22711 87 175 443
15.323 -20.3269 2.85528 85 176 443
16.0855 -21.3384 3.0446 85 177 443
18.3781 -24.3797 3.53792 82 178 443
20.67 -27.4201 4.03988 84 179 443
17.6051 -23.3543 3.4978 83 180 443
13.0121 -17.2613 2.62353 84 181 443
13.7737 -18.2717 2.82168 84 182 443
13.0062 -17.2535 2.70274 86 183 443
16.8248 -22.3192 3.55078 86 184 443
16.8211 -22.3142 3.59956 83 185 443
16.8169 -22.3087 3.6532 85 186 443
12.9939 -17.2373 2.86105 84 187 443
18.336 -24.3238 4.0968 86 188 443
16.0413 -21.2798 3.63147 83 189 443
15.2738 -20.2617 3.50736 79 190 443
15.2701 -20.2568 3.55164 79 191 443
38.5054 -50.9318 -13.6648 17 0 450
33.2339 -43.9591 -11.6935 18 1 450
36.2691 -47.9737 -12.6408 18 2 450
33.2596 -43.993 -11.4914 18 3 450
33.2728 -44.0105 -11.3855 18 4 450
31.0159 -41.0253 -10.5197 18 5 450
33.2977 -44.0435 -11.1832 19 6 450
31.7958 -42.0568 -10.583 18 7 450
33.3222 -44.0759 -10.9808 19 8 450
31.819 -42.0875 -10.3897 19 9 450
31.0733 -41.1012 -10.0435 19 10 450
30.3259 -40.1125 -9.71085 19 11 450
31.0953 -41.1302 -9.85458 19 12 450
29.5887 -39.1374 -9.28839 19 13 450
36.428 -48.1839 -11.3153 21 14 450
35.6808 -47.1956 -10.9763 20 15 450
39.4897 -52.2337 -12.0181 21 16 450
33.4264 -44.2136 -10.0728 19 17 450
37.2368 -49.2537 -11.0986 20 18 450
31.9285 -42.2323 -9.4211 19 19 450
29.6586 -39.2299 -8.65396 20 20 450
31.9491 -42.2596 -9.22699 20 21 450
28.156 -37.2424 -8.03923 41 22 450
22.8377 -30.2078 -6.45269 40 23 450
17.5167 -23.1696 -4.8919 42 24 450
19.0447 -25.1907 -5.26195 42 25 450
15.2424 -20.1613 -4.16154 44 26 450
19.8181 -26.2137 -5.35192 48 27 450
16.7757 -22.1895 -4.47552 38 28 450
16.0181 -21.1874 -4.22585 40 29 450
14.4978 -19.1765 -3.77747 50 30 450
15.2645 -20.1906 -3.93199 58 31 450
15.269 -20.1966 -3.88338 58 32 450
16.7995 -22.221 -4.22288 46 33 450
18.3312 -24.247 -4.54823 45 34 450
18.336 -24.2533 -4.49517 54 35 450
12.2304 -16.1774 -2.95858 52 36 450
14.5256 -19.2133 -3.47088 58 37 450
16.0581 -21.2403 -3.78489 58 38 450
15.2976 -20.2345 -3.56049 59 39 450
15.3017 -20.2399 -3.51179 55 40 450
16.8351 -22.268 -3.81404 49 41 450
18.3695 -24.2976 -4.10212 59 42 450
14.5478 -19.2426 -3.20583 51 43 450
14.5515 -19.2475 -3.15951 47 44 450
15.3203 -20.2645 -3.28136 63 45 450
28.342 -37.4884 -5.97868 78 46 450
37.5393 -49.6539 -7.80846 83 47 450
49.806 -65.8793 -10.199 83 48 450
52.1155 -68.934 -10.5188 82 49 450
51.3611 -67.9362 -10.2007 83 50 450
50.6052 -66.9363 -9.90203 83 51 450
49.083 -64.9229 -9.44579 82 52 450
50.6267 -66.9648 -9.59441 82 53 450
49.1035 -64.9501 -9.14742 85 54 450
46.8113 -61.9181 -8.58325 85 55 450
45.2864 -59.901 -8.15773 87 56 450
46.0624 -60.9275 -8.16267 86 57 450
46.0718 -60.9399 -8.01602 83 58 450
47.6159 -62.9823 -8.14538 80 59 450
46.8572 -61.9788 -7.86487 85 60 450
46.0973 -60.9736 -7.60256 85 61 450
44.5694 -58.9527 -7.20732 88 62 450
44.577 -58.9627 -7.07832 89 63 450
44.5851 -58.9734 -6.9364 89 64 450
46.1297 -61.0165 -7.04205 89 65 450
46.1377 -61.0271 -6.89518 89 66 450
44.607 -59.0025 -6.5363 90 67 450
45.3836 -60.0296 -6.50451 91 68 450
43.852 -58.0038 -6.15716 93 69 450
36.9354 -48.855 -5.0676 92 70 450
32.3242 -42.7558 -4.34076 92 71 450
26.9425 -35.6373 -3.53174 91 72 450
29.255 -38.6961 -3.7497 91 73 450
27.7198 -36.6655 -3.46417 92 74 450
26.9536 -35.652 -3.28997 89 75 450
24.6475 -32.6017 -2.92961 93 76 450
23.8805 -31.5871 -2.76898 93 77 450
23.8837 -31.5913 -2.69295 92 78 450
22.346 -29.5574 -2.45461 92 79 450
23.1191 -30.58 -2.46563 97 80 450
23.8921 -31.6025 -2.47864 96 81 450
21.5834 -28.5487 -2.17016 94 82 450
21.5856 -28.5517 -2.10769 94 83 450
23.9001 -31.613 -2.25734 96 84 450
20.8194 -27.5382 -1.90593 97 85 450
20.0507 -26.5214 -1.77154 96 86 450
20.0526 -26.5239 -1.71351 96 87 450
21.5965 -28.566 -1.77651 96 88 450
21.5983 -28.5684 -1.71401 96 89 450
21.6003 -28.571 -1.64524 97 90 450
20.0596 -26.5332 -1.46972 99 91 450
21.6037 -28.5756 -1.51396 99 92 450
20.834 -27.5575 -1.39962 99 93 450
24.6924 -32.661 -1.58009 101 94 450
30.0938 -39.8056 -1.83851 101 95 450
35.4961 -46.9513 -2.05541 100 96 450
38.5842 -51.036 -2.12243 101 97 450
40.9013 -54.1008 -2.11954 100 98 450
40.9034 -54.1036 -2.00117 100 99 450
40.9057 -54.1066 -1.87095 101 100 450
40.9076 -54.1091 -1.75256 100 101 450
41.6812 -55.1325 -1.65293 100 102 450
42.4547 -56.1555 -1.56067 100 103 450
42.4564 -56.1578 -1.42551 102 104 450
43.2296 -57.1805 -1.32632 102 105 450
42.4592 -56.1616 -1.16747 101 106 450
43.2323 -57.184 -1.06358 100 107 450
44.0053 -58.2065 -0.942478 100 108 450
40.9187 -54.1238 -0.757932 101 109 450
37.8319 -50.0409 -0.580306 98 110 450
37.0605 -49.0206 -0.46121 98 111 450
36.2891 -48.0002 -0.336079 99 112 450
38.6052 -51.0637 -0.245799 98 113 450
37.8334 -50.0429 -0.120442 96 114 450
39.3774 -52.0851 -0.0113961 97 115 450
40.9212 -54.1271 0.118429 98 116 450
38.6052 -51.0638 0.223454 98 117 450
29.3419 -38.811 0.263248 96 118 450
23.1663 -30.6424 0.27489 99 119 450
15.447 -20.432 0.232471 98 120 450
15.4467 -20.4316 0.277176 97 121 450
17.7619 -23.494 0.375273 97 122 450
15.446 -20.4307 0.371052 96 123 450
15.4455 -20.4301 0.420223 97 124 450
14.6733 -19.4086 0.441691 98 125 450
15.4445 -20.4287 0.514091 99 126 450
16.2157 -21.4487 0.586711 97 127 450
17.7584 -23.4893 0.699092 97 128 450
18.5293 -24.509 0.783099 95 129 450
18.5284 -24.5078 0.842085 93 130 450
16.9842 -22.4653 0.8211 96 131 450
20.841 -27.5668 1.07396 95 132 450
19.2969 -25.5243 1.05029 95 133 450
17.7527 -23.4818 1.02283 95 134 450
17.7516 -23.4803 1.0742 94 135 450
16.9789 -22.4583 1.08158 95 136 450
17.7491 -23.477 1.18208 94 137 450
16.9764 -22.455 1.18476 93 138 450
16.9752 -22.4533 1.23389 93 139 450
16.9737 -22.4514 1.28793 91 140 450
14.6591 -19.3899 1.15482 93 141 450
20.8257 -27.5465 1.70706 93 142 450
26.2203 -34.682 2.22533 92 143 450
nan nan nan 94 144 450
30.069 -39.7728 2.73523 94 145 450
34.6899 -45.8849 3.26635 91 146 450
35.457 -46.8996 3.44154 92 147 450
nan nan nan 94 148 450
33.9083 -44.8511 3.49805 93 149 450
33.9042 -44.8457 3.60599 93 150 450
33.1301 -43.8217 3.61995 93 151 450
32.3557 -42.7974 3.63879 92 152 450
33.8919 -44.8294 3.91011 91 153 450
35.4273 -46.8603 4.20059 89 154 450
33.8831 -44.8177 4.11607 89 155 450
34.648 -45.8295 4.3199 92 156 450
34.6434 -45.8234 4.42017 93 157 450
33.0991 -43.7808 4.32914 89 158 450
33.0945 -43.7747 4.42493 88 159 450
32.32 -42.7503 4.42495 88 160 450
33.8537 -44.7789 4.73359 86 161 450
33.0791 -43.7543 4.73135 91 162 450
34.612 -45.7819 5.05153 89 163 450
34.6061 -45.7741 5.16171 93 164 450
31.5258 -41.6997 4.79425 93 165 450
25.3717 -33.5595 3.93983 87 166 450
19.9884 -26.439 3.16226 85 167 450
13.07 -17.288 2.10974 85 168 450
12.2996 -16.2689 2.02132 82 169 450
13.0653 -17.2817 2.18916 85 170 450
9.99144 -13.2159 1.70334 86 171 450
15.3635 -20.3216 2.6686 84 172 450
19.1986 -25.3944 3.39093 87 173 450
18.4273 -24.374 3.31403 87 174 450
19.191 -25.3843 3.50759 87 175 450
16.1185 -21.3201 2.99796 85 176 450
15.3483 -20.3015 2.8997 85 177 450
18.4121 -24.354 3.53792 82 178 450
22.2416 -29.4193 4.339 84 179 450
17.6377 -23.3297 3.4978 83 180 450
13.8025 -18.2568 2.77774 84 181 450
14.5653 -19.2658 2.97834 84 182 450
13.7962 -18.2485 2.86161 86 183 450
17.6218 -23.3086 3.71209 86 184 450
18.3834 -24.3161 3.92661 83 185 450
18.3788 -24.31 3.98513 85 186 450
15.3137 -20.2557 3.36559 84 187 450
19.9 -26.3221 4.43803 86 188 450
16.8359 -22.2691 3.8043 83 189 450
15.3021 -20.2404 3.50736 79 190 450
15.2984 -20.2354 3.55164 79 191 450
31.7631 -41.9071 -11.2539 17 0 454
27.9933 -36.9333 -9.83364 18 1 454
34.0578 -44.9345 -11.8509 18 2 454
27.2579 -35.9631 -9.40262 18 3 454
31.0549 -40.9727 -10.6094 18 4 454
28.7935 -37.9891 -9.75017 18 5 454
29.5626 -39.0038 -9.91273 19 6 454
28.8149 -38.0174 -9.57539 19 7 454
30.3427 -40.033 -9.98278 19 8 454
28.0773 -37.0442 -9.15318 19 9 454
28.0879 -37.0581 -9.06392 19 10 454
25.0608 -33.0643 -8.01195 19 11 454
25.8295 -34.0785 -8.17257 19 12 454
26.5977 -35.0921 -8.33602 19 13 454
33.447 -44.1287 -10.3726 19 14 454
33.4579 -44.1431 -10.2759 19 15 454
36.5116 -48.1721 -11.0938 19 16 454
30.4375 -40.1581 -9.15736 19 17 454
35.014 -46.1961 -10.4193 28 18 454
28.1739 -37.1717 -8.29986 19 19 454
25.1376 -33.1656 -7.32298 19 20 454
28.9538 -38.2006 -8.34848 20 21 454
25.9156 -34.1921 -7.38761 41 22 454
20.588 -27.1631 -5.80768 52 23 454
16.0201 -21.1363 -4.46673 52 24 454
18.3128 -24.1612 -5.05157 45 25 454
10.6896 -14.1034 -2.91381 48 26 454
18.3238 -24.1758 -4.94042 48 27 454
14.5127 -19.1476 -3.86555 38 28 454
12.9897 -17.1381 -3.42137 49 29 454
9.93839 -13.1123 -2.58532 50 30 454
9.9411 -13.1159 -2.5566 62 31 454
8.41557 -11.1032 -2.13688 62 32 454
9.18225 -12.1147 -2.30441 53 33 454
12.2436 -16.1537 -3.03289 45 34 454
9.95215 -13.1305 -2.43589 62 35 454
9.18988 -12.1248 -2.21948 61 36 454
8.42694 -11.1182 -2.01035 61 37 454
7.66377 -10.1113 -1.80343 61 38 454
8.43133 -11.124 -1.95921 60 39 454
7.66772 -10.1165 -1.75692 57 40 454
8.43561 -11.1296 -1.90804 50 41 454
10.7366 -14.1655 -2.39374 59 42 454
10.7391 -14.1688 -2.36271 65 43 454
9.20855 -12.1494 -1.9962 56 44 454
10.7442 -14.1756 -2.29753 72 45 454
23.7858 -31.3821 -5.00947 78 46 454
nan nan nan 0 47 454
46.0497 -60.7563 -9.41462 82 48 454
46.8271 -61.782 -9.43621 82 49 454
47.6057 -62.8091 -9.43958 80 50 454
46.0798 -60.796 -9.00201 84 51 454
46.8582 -61.823 -9.0031 82 52 454
46.8676 -61.8354 -8.86769 82 53 454
45.3411 -59.8214 -8.43291 85 54 454
43.813 -57.8052 -8.02052 85 55 454
42.2849 -55.7891 -7.60477 87 56 454
43.0616 -56.8139 -7.6186 86 57 454
40.7635 -53.7819 -7.081 83 58 454
43.0782 -56.8358 -7.35726 80 59 454
43.0867 -56.847 -7.22033 84 60 454
41.5555 -54.8267 -6.84246 85 61 454
39.2548 -51.7913 -6.33765 87 62 454
40.031 -52.8155 -6.34623 87 63 454
38.4987 -50.7938 -5.97985 89 64 454
40.0448 -52.8336 -6.10329 88 65 454
40.0518 -52.8429 -5.976 88 66 454
41.5984 -54.8834 -6.08561 87 67 454
40.8351 -53.8763 -5.84316 91 68 454
40.0708 -52.8679 -5.61717 93 69 454
33.1423 -43.7268 -4.53985 92 70 454
30.0645 -39.6659 -4.03079 92 71 454
24.6737 -32.5535 -3.22912 93 72 454
26.2188 -34.5921 -3.35511 92 73 454
22.3677 -29.5111 -2.7908 92 74 454
22.3706 -29.5149 -2.72616 89 75 454
21.6025 -28.5016 -2.56354 93 76 454
20.8339 -27.4875 -2.41183 93 77 454
20.0653 -26.4734 -2.25877 93 78 454
19.2961 -25.4586 -2.11618 95 79 454
19.2986 -25.4618 -2.05485 97 80 454
22.3874 -29.5371 -2.31879 96 81 454
17.7595 -23.4312 -1.78279 94 82 454
18.5332 -24.452 -1.80672 96 83 454
19.3071 -25.4731 -1.8206 96 84 454
17.765 -23.4385 -1.62369 99 85 454
17.7669 -23.441 -1.56722 98 86 454
17.7685 -23.4431 -1.51589 99 87 454
17.7702 -23.4454 -1.45941 98 88 454
18.544 -24.4663 -1.46925 98 89 454
21.6351 -28.5446 -1.64524 98 90 454
15.4575 -20.394 -1.13071 99 91 454
16.2312 -21.4149 -1.13563 99 92 454
16.2324 -21.4164 -1.08873 99 93 454
20.8692 -27.5341 -1.33329 103 94 454
26.2792 -34.6718 -1.60288 102 95 454
32.4626 -42.83 -1.87672 102 96 454
34.7828 -45.8911 -1.91024 102 97 454
34.7849 -45.894 -1.79968 101 98 454
34.7868 -45.8964 -1.69917 100 99 454
37.8802 -49.9778 -1.72977 101 100 454
37.882 -49.9801 -1.62032 100 101 454
37.1108 -48.9627 -1.46931 101 102 454
38.6583 -51.0043 -1.41882 100 103 454
38.6599 -51.0064 -1.29595 103 104 454
38.6612 -51.0081 -1.18424 102 105 454
37.8894 -49.9899 -1.04014 101 106 454
38.6636 -51.0113 -0.949647 100 107 454
37.8915 -49.9926 -0.810227 100 108 454
35.5729 -46.9336 -0.65785 100 109 454
34.0273 -44.8944 -0.521105 100 110 454
32.4815 -42.8549 -0.403573 98 111 454
32.4819 -42.8554 -0.300335 99 112 454
34.0285 -44.896 -0.21631 96 113 454
31.7092 -41.8359 -0.100783 96 114 454
34.8019 -45.9164 -0.0100557 100 115 454
37.8946 -49.9967 0.109493 97 116 454
34.0285 -44.896 0.196646 96 117 454
24.7503 -32.6546 0.221695 97 118 454
18.5648 -24.4937 0.219933 99 119 454
10.8331 -14.2927 0.162771 98 120 454
10.0597 -13.2725 0.180221 97 121 454
13.9251 -18.3722 0.293734 97 122 454
12.3786 -16.3318 0.296885 96 123 454
12.3782 -16.3313 0.336228 97 124 454
10.8317 -14.291 0.325528 99 125 454
11.6043 -15.3103 0.385644 99 126 454
11.6039 -15.3098 0.419173 99 127 454
13.1493 -17.3487 0.516813 99 128 454
13.1488 -17.348 0.554806 97 129 454
13.1481 -17.3471 0.596597 96 130 454
16.2388 -21.4249 0.783798 98 131 454
17.0107 -22.4433 0.875168 95 132 454
16.237 -21.4225 0.882325 95 133 454
14.6905 -19.3821 0.845035 95 134 454
13.9169 -18.3615 0.8408 94 135 454
13.1433 -17.3408 0.835895 95 136 454
13.915 -18.3589 0.925238 94 137 454
13.9139 -18.3575 0.969464 95 138 454
14.6853 -19.3752 1.06572 93 139 454
15.4564 -20.3926 1.1709 94 140 454
12.3659 -16.3151 0.972593 95 141 454
16.2259 -21.4079 1.32788 94 142 454
20.8575 -27.5186 1.76733 97 143 454
26.26 -34.6465 2.3088 96 144 454
25.4855 -33.6246 2.31456 95 145 454
29.3424 -38.7133 2.75839 91 146 454
30.8832 -40.7461 2.99276 92 147 454
24.7055 -32.5956 2.47291 92 148 454
27.7896 -36.6646 2.86221 93 149 454
29.3294 -38.6962 3.1144 91 150 454
28.5546 -37.6739 3.11497 95 151 454
28.5509 -37.6691 3.20573 94 152 454
29.3188 -38.6822 3.37706 91 153 454
32.3997 -42.7469 3.83541 91 154 454
27.7689 -36.6373 3.36789 92 155 454
28.536 -37.6493 3.55212 91 156 454
30.074 -39.6785 3.83096 92 157 454
30.0695 -39.6726 3.92654 92 158 454
29.2946 -38.6502 3.91054 93 159 454
28.5195 -37.6276 3.89832 92 160 454
29.2858 -38.6386 4.08827 86 161 454
28.5107 -37.6159 4.07134 86 162 454
32.3573 -42.691 4.71485 89 163 454
31.5817 -41.6678 4.70301 90 164 454
28.4969 -37.5978 4.32666 91 165 454
20.024 -26.4189 3.10441 89 166 454
15.4026 -20.3216 2.43284 88 167 454
9.24347 -12.1955 1.48965 88 168 454
9.24188 -12.1934 1.51636 85 169 454
7.70159 -10.1612 1.28836 88 170 454
13.0841 -17.2626 2.22697 87 171 454
11.5435 -15.2301 2.00184 86 172 454
13.8479 -18.2704 2.44192 87 173 454
13.0763 -17.2525 2.34791 87 174 454
14.6109 -19.2771 2.66616 87 175 454
13.8394 -18.2592 2.56992 91 176 454
16.9095 -22.3098 3.1895 90 177 454
18.4418 -24.3315 3.53792 82 178 454
17.6702 -23.3134 3.44164 84 179 454
17.6662 -23.3081 3.4978 83 180 454
13.0572 -17.2272 2.62353 85 181 454
13.8215 -18.2356 2.82168 84 182 454
13.0513 -17.2194 2.70274 86 183 454
15.3492 -20.2512 3.22815 86 184 454
13.0453 -17.2114 2.78191 86 185 454
14.5753 -19.2301 3.1553 85 186 454
12.2725 -16.1919 2.69287 84 187 454
16.1008 -21.2428 3.58495 86 188 454
15.3309 -20.227 3.45864 83 189 454
16.0927 -21.2321 3.68262 80 190 454
16.0888 -21.227 3.72911 80 191 454
34.8514 -45.8485 -12.3254 17 0 461
30.318 -39.8846 -10.6307 18 1 461
34.8785 -45.8842 -12.1142 18 2 461
30.3414 -39.9154 -10.447 18 3 461
31.8707 -41.9273 -10.8681 18 4 461
29.6054 -38.9472 -10.0067 18 5 461
30.3762 -39.9612 -10.1668 19 6 461
29.6274 -38.9762 -9.8273 19 7 461
31.1583 -40.9901 -10.2323 19 8 461
28.889 -38.0048 -9.40049 19 9 461
29.6602 -39.0193 -9.55371 19 10 461
27.3886 -36.0309 -8.74005 19 11 461
28.1595 -37.0451 -8.89343 19 12 461
28.1689 -37.0574 -8.8122 19 13 461
34.2699 -45.0835 -10.6082 19 14 461
34.2811 -45.0982 -10.5094 19 15 461
37.3407 -49.1233 -11.3249 19 16 461
32.0178 -42.1208 -9.61509 19 17 461
36.6032 -48.1531 -10.8722 28 18 461
28.9884 -38.1355 -8.52411 19 19 461
26.7097 -35.1377 -7.76664 19 20 461
30.5334 -40.168 -8.78774 20 21 461
26.7267 -35.1601 -7.60481 41 22 461
21.3895 -28.1389 -6.02268 40 23 461
16.0496 -21.114 -4.46673 42 24 461
18.3465 -24.1356 -5.05157 42 25 461
12.2379 -16.0995 -3.32972 44 26 461
18.3576 -24.1502 -4.94042 48 27 461
15.3042 -20.1334 -4.06888 38 28 461
13.7786 -18.1263 -3.62249 40 29 461
11.4871 -15.1118 -2.9827 50 30 461
11.4902 -15.1159 -2.94956 58 31 461
10.728 -14.1131 -2.71905 58 32 461
10.7309 -14.1169 -2.68811 46 33 461
13.7982 -18.1522 -3.41173 45 34 461
13.0356 -17.1488 -3.18472 54 35 461
9.2068 -12.1119 -2.21948 52 36 461
9.97581 -13.1236 -2.37548 58 37 461
9.97855 -13.1272 -2.34383 58 38 461
10.7481 -14.1396 -2.49297 59 39 461
9.98369 -13.134 -2.28338 55 40 461
10.7536 -14.1468 -2.42786 49 41 461
13.827 -18.1901 -3.07709 59 42 461
11.5267 -15.1639 -2.53133 51 43 461
10.7616 -14.1573 -2.32857 47 44 461
12.3005 -16.1818 -2.62548 63 45 461
25.3664 -33.3706 -5.33254 78 46 461
nan nan nan 83 47 461
47.672 -62.7146 -9.72838 82 48 461
49.2201 -64.7512 -9.9002 82 49 461
49.2315 -64.7662 -9.74403 80 50 461
47.7032 -62.7556 -9.30202 84 51 461
47.7139 -62.7697 -9.15066 82 52 461
48.4931 -63.7948 -9.15838 82 53 461
46.9641 -61.7834 -8.71871 85 54 461
44.6636 -58.7568 -8.1612 85 55 461
43.1328 -56.7431 -7.74301 87 56 461
44.6814 -58.7803 -7.89064 86 57 461
43.1497 -56.7653 -7.48172 83 58 461
44.6986 -58.8029 -7.61997 80 59 461
44.7073 -58.8144 -7.47815 84 60 461
43.1736 -56.7967 -7.09583 85 61 461
40.8689 -53.7648 -6.58613 87 62 461
41.6469 -54.7883 -6.59026 87 63 461
40.8832 -53.7837 -6.33856 89 64 461
43.2039 -56.8366 -6.57267 88 65 461
43.2114 -56.8465 -6.43559 88 66 461
41.675 -54.8253 -6.08561 87 67 461
42.4537 -55.8497 -6.06361 91 68 461
41.6882 -54.8426 -5.83316 93 69 461
34.7473 -45.7115 -4.75095 92 70 461
30.8919 -40.6396 -4.13412 92 71 461
25.4913 -33.5349 -3.32999 91 72 461
27.0394 -35.5715 -3.45376 91 73 461
23.1813 -30.496 -2.88699 92 74 461
23.9568 -31.5162 -2.9141 89 75 461
21.6423 -28.4714 -2.56354 93 76 461
21.645 -28.4749 -2.50112 93 77 461
20.875 -27.462 -2.34561 92 78 461
20.1046 -26.4484 -2.20079 92 79 461
20.1071 -26.4517 -2.13701 97 80 461
22.4286 -29.5058 -2.31879 96 81 461
18.5653 -24.4235 -1.86026 94 82 461
18.5673 -24.4261 -1.80672 94 83 461
20.8894 -27.4809 -1.96618 96 84 461
18.5712 -24.4312 -1.69425 97 85 461
17.7996 -23.4161 -1.56722 96 86 461
18.5748 -24.4359 -1.58176 97 87 461
18.5766 -24.4383 -1.52283 96 88 461
18.5782 -24.4404 -1.46925 96 89 461
21.675 -28.5144 -1.64524 97 90 461
17.0336 -22.4085 -1.24371 99 91 461
17.035 -22.4103 -1.18967 99 92 461
17.8102 -23.4301 -1.19236 99 93 461
21.6817 -28.5232 -1.38265 101 94 461
27.1016 -35.6534 -1.65 101 95 461
33.2965 -43.803 -1.92139 102 96 461
35.621 -46.861 -1.95267 102 97 461
37.1717 -48.9009 -1.91963 101 98 461
37.1736 -48.9035 -1.81242 100 99 461
39.4986 -51.9621 -1.80036 101 100 461
39.5004 -51.9645 -1.68644 100 101 461
38.7279 -50.9483 -1.53052 101 102 461
39.5039 -51.9691 -1.44719 100 103 461
39.5055 -51.9712 -1.32186 103 104 461
40.2813 -52.9918 -1.2316 102 105 461
38.7337 -50.9558 -1.06136 101 106 461
40.2838 -52.995 -0.987624 100 107 461
40.2848 -52.9964 -0.859821 100 108 461
37.1875 -48.9217 -0.686445 100 109 461
35.6391 -46.8848 -0.544785 100 110 461
34.0905 -44.8475 -0.422785 98 111 461
34.0909 -44.848 -0.314632 99 112 461
35.6403 -46.8864 -0.22614 96 113 461
34.0913 -44.8486 -0.108155 96 114 461
36.4152 -47.9058 -0.0105025 100 115 461
39.5135 -51.9818 0.113961 97 116 461
36.415 -47.9055 0.21005 96 117 461
26.345 -34.658 0.235546 97 118 461
20.1481 -26.5057 0.238252 99 119 461
11.6276 -15.2966 0.174387 98 120 461
10.8528 -14.2774 0.194072 97 121 461
14.7253 -19.3717 0.310041 97 122 461
12.4014 -16.3145 0.296885 96 123 461
12.401 -16.314 0.336228 97 124 461
11.6261 -15.2947 0.34876 98 125 461
13.1746 -17.3318 0.437023 99 126 461
13.1741 -17.3311 0.475019 97 127 461
13.9479 -18.3491 0.547193 97 128 461
13.9473 -18.3483 0.58742 95 129 461
14.7209 -19.366 0.666736 93 130 461
16.2687 -21.4022 0.783798 96 131 461
17.8162 -23.438 0.914927 95 132 461
17.0411 -22.4183 0.924318 95 133 461
15.4917 -20.38 0.889483 95 134 461
14.7167 -19.3604 0.88748 94 135 461
13.9416 -18.3407 0.885031 95 136 461
14.7146 -19.3577 0.976607 94 137 461
14.7134 -19.3561 1.02329 93 138 461
15.4862 -20.3727 1.12178 93 139 461
15.4848 -20.371 1.1709 91 140 461
13.1624 -17.3157 1.03334 93 141 461
17.8031 -23.4208 1.45427 93 142 461
23.2166 -30.5425 1.96362 96 143 461
nan nan nan 94 144 461
27.0793 -35.624 2.45478 95 145 461
31.7165 -41.7245 2.97609 91 146 461
32.4866 -42.7375 3.14235 92 147 461
27.8438 -36.6297 2.78191 92 148 461
30.1601 -39.6769 3.10065 93 149 461
30.9295 -40.689 3.27826 91 150 461
30.153 -39.6676 3.2833 95 151 461
30.1492 -39.6625 3.37895 94 152 461
30.9183 -40.6743 3.55474 91 153 461
34.0046 -44.7345 4.018 91 154 461
30.9102 -40.6637 3.74198 92 155 461
31.6782 -41.674 3.93601 91 156 461
32.4463 -42.6845 4.12557 92 157 461
31.6692 -41.6623 4.12784 92 158 461
30.8927 -40.6407 4.1163 93 159 461
30.1159 -39.6188 4.10897 92 160 461
30.8834 -40.6285 4.30338 86 161 461
30.1066 -39.6066 4.29134 86 162 461
33.1885 -43.6609 4.82708 89 163 461
33.1828 -43.6535 4.93236 90 164 461
30.0921 -39.5875 4.56045 91 165 461
22.3745 -29.4347 3.46245 89 166 461
16.9732 -22.3289 2.67598 88 167 461
10.0314 -13.1968 1.61367 88 168 461
9.2589 -12.1805 1.51636 82 169 461
8.48644 -11.1643 1.41705 85 170 461
11.5671 -15.217 1.96515 86 171 461
12.3352 -16.2274 2.1352 84 172 461
15.4139 -20.2776 2.71306 87 173 461
14.6406 -19.2603 2.62394 87 174 461
16.1777 -21.2824 2.94664 87 175 461
14.6347 -19.2525 2.7126 85 176 461
16.171 -21.2737 3.0446 85 177 461
18.4758 -24.3057 3.53792 82 178 461
19.2413 -25.3128 3.74076 84 179 461
17.6987 -23.2834 3.4978 83 180 461
13.0813 -17.209 2.62353 84 181 461
13.847 -18.2163 2.82168 84 182 461
13.0754 -17.2012 2.70274 86 183 461
16.1459 -21.2406 3.38946 86 184 461
14.6058 -19.2145 3.10897 83 185 461
15.3702 -20.2202 3.32127 85 186 461
12.2951 -16.1748 2.69287 84 187 461
16.8981 -22.2302 3.75557 86 188 461
15.3591 -20.2056 3.45864 83 189 461
15.355 -20.2002 3.50736 79 190 461
15.3513 -20.1953 3.55164 79 191 461
25.8093 -33.8551 -9.11088 17 0 465
26.5781 -34.8634 -9.30226 18 1 465
32.6642 -42.8469 -11.3244 18 2 465
24.3194 -31.9007 -8.35822 18 3 465
30.4092 -39.8889 -10.3507 18 4 465
27.379 -35.914 -9.23716 18 5 465
28.9108 -37.9234 -9.65864 19 6 465
28.1601 -36.9387 -9.32349 19 7 465
28.9321 -37.9513 -9.48379 21 8 465
25.8965 -33.9694 -8.41127 20 9 465
25.1445 -32.983 -8.08435 19 10 465
24.3911 -31.9947 -7.76925 19 11 465
20.589 -27.0073 -6.49056 19 12 465
24.4082 -32.0172 -7.62174 19 13 465
32.8073 -43.0346 -10.1369 19 14 465
33.581 -44.0495 -10.2759 21 15 465
35.1194 -46.0675 -10.6317 20 16 465
30.5495 -40.073 -9.15736 19 17 465
32.0877 -42.0907 -9.51349 28 18 465
26.7496 -35.0885 -7.85136 25 19 465
21.4087 -28.0826 -6.21383 19 20 465
26.0024 -34.1083 -7.46996 35 21 465
21.4224 -28.1006 -6.08436 42 22 465
16.8388 -22.0881 -4.73265 46 23 465
10.7224 -14.0649 -2.97865 46 24 465
12.2564 -16.0772 -3.36854 45 25 465
10.7289 -14.0735 -2.91381 48 26 465
12.2638 -16.0869 -3.29442 48 27 465
13.8 -18.102 -3.66223 38 28 465
9.97194 -13.0806 -2.6169 49 29 465
6.90851 -9.06215 -1.79055 48 30 465
6.14357 -8.05875 -1.57418 53 31 465
6.14539 -8.06114 -1.55472 52 32 465
9.21605 -12.089 -2.30441 53 33 465
6.14881 -8.06562 -1.51756 45 34 465
9.98878 -13.1027 -2.43589 62 35 465
6.15214 -8.06999 -1.48037 52 36 465
6.92178 -9.07956 -1.64522 61 37 465
6.15539 -8.07425 -1.44317 61 38 465
6.92539 -9.08429 -1.60337 60 39 465
6.15855 -8.0784 -1.40595 57 40 465
8.46666 -11.106 -1.90804 50 41 465
7.69979 -10.1001 -1.71038 59 42 465
10.7786 -14.1387 -2.36271 51 43 465
nan nan nan 0 44 465
7.70529 -10.1073 -1.64164 61 45 465
22.3337 -29.2959 -4.6864 78 46 465
30.8085 -40.4126 -6.3746 83 47 465
43.1385 -56.5864 -8.7871 84 48 465
41.6071 -54.5776 -8.35357 85 49 465
41.6168 -54.5903 -8.2218 80 50 465
43.1667 -56.6234 -8.40199 84 51 465
47.0307 -61.6919 -9.0031 86 52 465
45.4981 -59.6816 -8.577 86 53 465
42.4233 -55.6483 -7.8613 87 54 465
41.6603 -54.6473 -7.59848 87 55 465
39.3546 -51.6229 -7.05182 86 56 465
40.1336 -52.6448 -7.07453 86 57 465
38.5982 -50.6307 -6.68028 87 58 465
40.1491 -52.6651 -6.83185 81 59 465
40.157 -52.6754 -6.7047 84 60 465
38.6196 -50.6587 -6.33572 87 61 465
37.0822 -48.6421 -5.96493 87 62 465
37.8609 -49.6636 -5.98019 89 63 465
37.0952 -48.6591 -5.74071 88 64 465
37.8739 -49.6807 -5.75126 88 65 465
37.8806 -49.6894 -5.63131 88 66 465
39.4325 -51.7251 -5.7476 87 67 465
40.9854 -53.762 -5.84316 92 68 465
38.6717 -50.7272 -5.40117 92 69 465
30.9442 -40.5906 -4.22321 93 70 465
26.3077 -34.5088 -3.51418 92 71 465
20.8965 -27.4107 -2.72475 93 72 465
23.2204 -30.4591 -2.96053 92 73 465
16.2594 -21.3281 -2.02123 92 74 465
19.3572 -25.3916 -2.35029 89 75 465
18.5859 -24.3798 -2.19747 93 76 465
17.8141 -23.3674 -2.05468 93 77 465
16.268 -21.3393 -1.82459 93 78 465
15.4955 -20.3261 -1.69315 95 79 465
15.4975 -20.3286 -1.64407 97 80 465
16.2737 -21.3468 -1.67938 96 81 465
14.7264 -19.3172 -1.4729 94 82 465
12.4039 -16.2707 -1.20477 96 83 465
17.0539 -22.3702 -1.60223 96 84 465
15.5059 -20.3397 -1.41201 97 85 465
14.7326 -19.3253 -1.2948 97 86 465
14.7339 -19.3271 -1.25239 97 87 465
13.9603 -18.3122 -1.14231 98 88 465
13.1863 -17.297 -1.04093 98 89 465
16.2883 -21.366 -1.23411 98 90 465
12.4133 -16.283 -0.9047 99 91 465
13.1897 -17.3014 -0.919437 99 92 465
13.1906 -17.3026 -0.881465 99 93 465
18.6197 -24.4242 -1.18521 102 94 465
24.8249 -32.5638 -1.50862 102 95 465
31.8065 -41.7218 -1.83205 102 96 465
34.9108 -45.7938 -1.91024 102 97 465
31.0348 -40.7095 -1.59977 101 98 465
31.0364 -40.7116 -1.51042 101 99 465
35.6925 -46.8191 -1.62389 101 100 465
34.9184 -45.8037 -1.48808 104 101 465
34.1442 -44.7883 -1.3469 104 102 465
36.4731 -47.8431 -1.33371 104 103 465
36.4746 -47.8451 -1.21821 103 104 465
36.4758 -47.8467 -1.1132 102 105 465
37.253 -48.8661 -1.01892 101 106 465
36.478 -47.8496 -0.892681 101 107 465
37.255 -48.8687 -0.793696 100 108 465
34.1519 -44.7983 -0.629255 101 109 465
31.8246 -41.7455 -0.485585 100 110 465
31.049 -40.7282 -0.384361 101 111 465
30.2734 -39.7108 -0.278888 101 112 465
31.8257 -41.747 -0.201566 96 113 465
31.0499 -40.7293 -0.0983257 99 114 465
32.602 -42.7652 -0.00938551 100 115 465
34.93 -45.8189 0.100557 97 116 465
31.8257 -41.747 0.183242 97 117 465
22.5134 -29.5316 0.200919 99 118 465
15.5291 -20.3701 0.183296 98 119 465
7.76898 -10.1909 0.116304 98 120 465
7.76884 -10.1907 0.138669 97 121 465
10.8725 -14.2619 0.228502 97 122 465
9.32036 -12.2259 0.222718 96 123 465
9.32009 -12.2255 0.252232 97 124 465
7.76802 -10.1896 0.232598 98 125 465
8.5436 -11.207 0.282886 98 126 465
8.54329 -11.2065 0.307481 98 127 465
10.0945 -13.2414 0.395294 99 128 465
10.0941 -13.2408 0.424354 97 129 465
10.0936 -13.2401 0.456318 96 130 465
13.1958 -17.3095 0.634586 96 131 465
13.9707 -18.3259 0.716131 95 132 465
13.1943 -17.3075 0.714357 95 133 465
11.6424 -15.2717 0.667242 95 134 465
10.8661 -14.2535 0.654077 94 135 465
nan nan nan 0 136 465
10.8646 -14.2515 0.719764 94 137 465
10.8638 -14.2504 0.754167 94 138 465
10.0877 -13.2324 0.729385 93 139 465
12.4124 -16.2819 0.936861 94 140 465
9.31084 -12.2134 0.729623 95 141 465
13.1853 -17.2957 1.07509 95 142 465
17.0592 -22.3772 1.44019 101 143 465
23.2569 -30.507 2.03727 100 144 465
23.2547 -30.5041 2.10422 95 145 465
24.027 -31.5172 2.25042 94 146 465
27.8981 -36.595 2.69357 92 147 465
21.698 -28.4621 2.16391 92 148 465
24.0193 -31.507 2.46481 93 149 465
25.5652 -33.5349 2.70473 95 150 465
25.5623 -33.5311 2.77833 97 151 465
26.3333 -34.5424 2.94588 96 152 465
27.1043 -35.5537 3.11053 94 153 465
26.3266 -34.5336 3.10506 92 154 465
24.7754 -32.4988 2.9938 92 155 465
25.5457 -33.5092 3.16823 91 156 465
27.0897 -35.5346 3.43816 92 157 465
27.8593 -36.5441 3.62459 92 158 465
27.0819 -35.5244 3.60191 93 159 465
27.0777 -35.5188 3.68766 93 160 465
26.3005 -34.4993 3.65806 88 161 465
25.523 -33.4795 3.63134 86 162 465
30.1573 -39.5585 4.37817 92 163 465
29.3793 -38.5379 4.35898 90 164 465
27.0563 -35.4907 4.09286 90 165 465
17.7798 -23.3224 2.74637 90 166 465
12.3693 -16.2252 1.94655 88 167 465
5.41564 -7.1039 0.86957 86 168 465
6.95918 -9.12862 1.13764 85 169 465
4.64158 -6.08854 0.77362 88 170 465
6.95661 -9.12525 1.1797 84 171 465
6.95522 -9.12343 1.20173 86 172 465
10.0406 -13.1706 1.76405 87 173 465
8.4955 -11.1439 1.51981 87 174 465
10.8079 -14.1772 1.96497 87 175 465
8.49206 -11.1394 1.57115 87 176 465
10.8035 -14.1713 2.0303 87 177 465
13.1137 -17.2017 2.50653 82 178 465
13.8817 -18.2092 2.69384 84 179 465
13.108 -17.1943 2.58579 83 180 465
7.7127 -10.117 1.54399 83 181 465
7.71089 -10.1147 1.56842 82 182 465
7.70922 -10.1125 1.59061 86 183 465
10.7867 -14.1493 2.26027 86 184 465
10.0146 -13.1365 2.12779 86 185 465
10.0121 -13.1333 2.1595 85 186 465
9.24053 -12.1212 2.02014 84 187 465
9.23816 -12.118 2.0494 83 188 465
9.23598 -12.1152 2.07599 83 189 465
13.0771 -17.1537 2.98156 79 190 465
13.0739 -17.1496 3.0192 79 191 465
28.8975 -37.7963 -10.1824 17 0 472
27.3872 -35.821 -9.56795 18 1 472
33.4849 -43.7964 -11.5876 18 2 472
25.8861 -33.8577 -8.88042 18 3 472
30.4648 -39.8464 -10.3507 18 4 472
28.1908 -36.872 -9.49367 18 5 472
28.9637 -37.883 -9.65864 19 6 472
28.2117 -36.8994 -9.32349 19 7 472
29.7476 -38.9082 -9.73329 19 8 472
26.7067 -34.9309 -8.65857 19 9 472
26.7167 -34.944 -8.57414 19 10 472
24.4358 -31.9606 -7.76925 19 11 472
22.9175 -29.9749 -7.21142 19 12 472
25.2168 -32.9822 -7.85984 19 13 472
32.8674 -42.9887 -10.1369 19 14 472
33.6425 -44.0025 -10.2759 19 15 472
35.9484 -47.0186 -10.8627 19 16 472
30.6055 -40.0303 -9.15736 19 17 472
33.6768 -44.0474 -9.96639 28 18 472
27.564 -36.0522 -8.07561 19 19 472
22.9793 -30.0557 -6.65749 19 20 472
27.5818 -36.0755 -7.90922 20 21 472
23.7601 -31.0769 -6.73598 41 22 472
18.4025 -24.0694 -5.16266 46 23 472
13.0419 -17.0581 -3.6164 46 24 472
15.3464 -20.0722 -4.21006 45 25 472
10.7486 -14.0585 -2.91381 48 26 472
15.3556 -20.0843 -4.11742 48 27 472
13.8253 -18.0827 -3.66223 38 28 472
11.5258 -15.0751 -3.01914 49 29 472
8.45719 -11.0615 -2.18793 48 30 472
7.69127 -10.0598 -1.96714 53 31 472
6.9251 -9.05765 -1.74877 52 32 472
9.23292 -12.0762 -2.30441 53 33 472
9.23559 -12.0796 -2.27522 45 34 472
10.0071 -13.0887 -2.43589 62 35 472
7.702 -10.0738 -1.84992 52 36 472
7.70394 -10.0763 -1.82779 61 37 472
6.93636 -9.07238 -1.6233 61 38 472
7.70796 -10.0816 -1.78129 60 39 472
6.93992 -9.07704 -1.58143 57 40 472
8.48216 -11.0942 -1.90804 50 41 472
9.25486 -12.1048 -2.05206 59 42 472
10.7983 -14.1237 -2.36271 51 43 472
nan nan nan 56 44 472
9.26146 -12.1135 -1.96959 61 45 472
23.1458 -30.2735 -4.84793 78 46 472
nan nan nan 83 47 472
44.7607 -58.5445 -9.10086 82 48 472
43.9985 -57.5477 -8.81756 82 49 472
44.7806 -58.5706 -8.83069 80 50 472
44.7899 -58.5828 -8.702 84 51 472
47.1168 -61.6262 -9.0031 82 52 472
46.3538 -60.6283 -8.72235 82 53 472
44.0462 -57.61 -8.1471 85 54 472
42.5093 -55.5998 -7.73916 85 55 472
40.9724 -53.5897 -7.3283 86 56 472
41.7532 -54.6109 -7.34657 86 57 472
39.4421 -51.5881 -6.81385 83 58 472
41.7692 -54.6319 -7.09456 80 59 472
41.7774 -54.6426 -6.96252 84 60 472
40.2375 -52.6285 -6.58909 85 61 472
37.9238 -49.6023 -6.08917 87 62 472
38.7041 -50.6229 -6.1022 87 63 472
37.9371 -49.6197 -5.86028 88 64 472
38.7174 -50.6403 -5.8686 88 65 472
38.7242 -50.6492 -5.74621 88 66 472
40.2791 -52.6828 -5.86027 87 67 472
41.0604 -53.7048 -5.84316 91 68 472
39.5172 -51.6863 -5.50917 92 69 472
31.7756 -41.5608 -4.32876 92 70 472
27.9056 -36.499 -3.72083 92 71 472
22.4848 -29.4088 -2.9265 93 72 472
24.8132 -32.4543 -3.15782 92 73 472
19.3901 -25.3613 -2.40602 92 74 472
20.9434 -27.3928 -2.53823 89 75 472
20.1708 -26.3823 -2.38051 93 76 472
19.3978 -25.3712 -2.23325 93 77 472
17.849 -23.3456 -1.99826 93 78 472
17.0754 -22.3337 -1.86236 95 79 472
17.0775 -22.3365 -1.80838 97 80 472
19.4072 -25.3836 -1.99909 96 81 472
16.3054 -21.3266 -1.62784 94 82 472
15.531 -20.3137 -1.50574 96 83 472
17.8613 -23.3616 -1.67502 96 84 472
16.3105 -21.3333 -1.48257 97 85 472
16.3122 -21.3355 -1.43101 97 86 472
16.3137 -21.3375 -1.38414 97 87 472
15.5388 -20.3239 -1.26915 98 88 472
15.5401 -20.3257 -1.22449 98 89 472
18.648 -24.3906 -1.41031 98 90 472
13.9894 -18.2974 -1.0177 99 91 472
14.7673 -19.3148 -1.02753 99 92 472
14.7684 -19.3162 -0.985095 99 93 472
19.4307 -25.4143 -1.23457 102 94 472
25.6473 -33.5452 -1.55575 102 95 472
31.8648 -41.6774 -1.83205 102 96 472
34.9747 -45.745 -1.91024 102 97 472
32.6457 -42.6988 -1.67973 101 98 472
32.6474 -42.7011 -1.58592 100 99 472
36.5349 -47.7857 -1.65919 101 100 472
36.5367 -47.788 -1.5542 100 101 472
35.7612 -46.7737 -1.4081 101 102 472
37.3171 -48.8088 -1.36208 100 103 472
37.3186 -48.8107 -1.24412 103 104 472
37.3199 -48.8124 -1.13688 102 105 472
37.3212 -48.814 -1.01892 101 106 472
37.3222 -48.8154 -0.91167 100 107 472
37.3232 -48.8167 -0.793696 100 108 472
34.9918 -45.7673 -0.643552 100 109 472
32.6602 -42.7178 -0.497425 100 110 472
31.8833 -41.7016 -0.393967 98 111 472
31.1063 -40.6853 -0.286037 99 112 472
32.6614 -42.7193 -0.206481 96 113 472
31.1067 -40.6859 -0.0983257 96 114 472
33.4391 -43.7365 -0.00960891 100 115 472
36.5488 -47.8038 0.105025 97 116 472
32.6614 -42.7194 0.18771 96 117 472
23.332 -30.517 0.207844 97 118 472
17.1124 -22.3821 0.201614 98 119 472
9.33802 -12.2136 0.139537 98 120 472
8.56046 -11.1966 0.15252 97 121 472
12.4472 -16.2802 0.261118 97 122 472
10.8921 -14.2463 0.259801 96 123 472
10.8918 -14.2459 0.29423 97 124 472
9.33687 -12.2121 0.279063 98 125 472
10.1138 -13.2283 0.334265 98 126 472
10.1134 -13.2278 0.363327 98 127 472
11.6674 -15.2604 0.456054 99 128 472
11.6669 -15.2597 0.48958 97 129 472
11.6663 -15.2589 0.526457 96 130 472
14.7742 -19.3239 0.709192 96 131 472
15.5504 -20.3391 0.79565 95 132 472
14.7725 -19.3217 0.798341 95 133 472
13.2176 -17.2879 0.756138 95 134 472
12.4399 -16.2707 0.747438 94 135 472
nan nan nan 95 136 472
12.4381 -16.2684 0.822501 94 137 472
12.4372 -16.2671 0.861815 94 138 472
12.4362 -16.2659 0.897553 93 139 472
13.9884 -18.2961 1.05388 94 140 472
10.881 -14.2318 0.851108 95 141 472
14.7625 -19.3085 1.20149 94 142 472
18.6433 -24.3844 1.57105 97 143 472
24.8522 -32.5053 2.17303 96 144 472
24.0736 -31.4869 2.17433 95 145 472
26.3996 -34.5292 2.46812 91 146 472
29.5014 -38.5862 2.84317 92 147 472
23.2898 -30.4618 2.31841 92 148 472
25.6151 -33.5032 2.62377 93 149 472
27.1637 -35.5287 2.8686 91 150 472
27.1606 -35.5247 2.94665 95 151 472
27.1572 -35.5201 3.0325 94 152 472
27.9295 -36.5302 3.19937 91 153 472
29.4766 -38.5538 3.47024 91 154 472
26.3714 -34.4924 3.18085 92 155 472
27.1429 -35.5015 3.36017 91 156 472
28.6896 -37.5245 3.63456 92 157 472
28.6853 -37.5189 3.72524 92 158 472
27.9064 -36.5001 3.70479 93 159 472
27.902 -36.4944 3.79299 92 160 472
27.898 -36.489 3.87316 86 161 472
27.1188 -35.47 3.85134 86 162 472
30.987 -40.5293 4.4904 89 163 472
30.2073 -39.5096 4.47366 90 164 472
27.88 -36.4655 4.20976 90 165 472
18.5864 -24.31 2.86572 89 166 472
13.9397 -18.2324 2.1897 88 167 472
6.97312 -9.12046 1.1176 86 168 472
7.74557 -10.1308 1.26388 85 169 472
6.19708 -8.10545 1.03099 88 170 472
10.0628 -13.1616 1.70334 84 171 472
9.28759 -12.1477 1.60179 86 172 472
11.6051 -15.1788 2.03519 87 173 472
10.8298 -14.1648 1.93386 87 174 472
12.3732 -16.1835 2.24545 87 175 472
10.8254 -14.159 1.9992 87 176 472
13.913 -18.1975 2.6099 87 177 472
15.4545 -20.2137 2.94856 82 178 472
15.4514 -20.2095 2.99296 84 179 472
15.4478 -20.2049 3.0418 83 180 472
10.0422 -13.1346 2.00665 83 181 472
10.8114 -14.1407 2.19505 82 182 472
10.0376 -13.1287 2.06724 86 183 472
13.1202 -17.1605 2.74421 86 184 472
11.5751 -15.1396 2.45485 86 185 472
12.3431 -16.1441 2.6574 85 186 472
10.7988 -14.1243 2.3565 84 187 472
12.3371 -16.1362 2.73187 83 188 472
12.3342 -16.1324 2.76731 83 189 472
14.6413 -19.15 3.33209 79 190 472
14.6377 -19.1453 3.37416 79 191 472
25.9038 -33.7829 -9.11088 17 0 476
25.9134 -33.7954 -9.03657 18 1 476
28.9727 -37.7853 -10.0079 18 2 476
24.4084 -31.8327 -8.35822 18 3 476
24.4181 -31.8454 -8.2812 18 4 476
24.4269 -31.8568 -8.21114 18 5 476
26.7265 -34.8559 -8.89635 18 6 476
23.6814 -30.8845 -7.81205 19 7 476
24.4544 -31.8927 -7.98681 21 8 476
22.9345 -29.9104 -7.42205 20 9 476
22.1787 -28.9247 -7.10478 19 10 476
21.4214 -27.9371 -6.79845 19 11 476
19.8993 -25.952 -6.25028 19 12 476
22.2017 -28.9548 -6.90747 19 13 476
28.3341 -36.9524 -8.72282 19 14 476
28.3433 -36.9644 -8.64154 20 15 476
29.8855 -38.9757 -9.01422 20 16 476
25.2972 -32.9918 -7.55529 19 17 476
29.1388 -38.0019 -8.6077 20 18 476
22.2466 -29.0133 -6.50586 25 19 476
19.1859 -25.0216 -5.54834 19 20 476
22.261 -29.032 -6.37182 35 21 476
16.1278 -21.0334 -4.56391 42 22 476
13.0615 -17.0344 -3.65762 46 23 476
5.3853 -7.02334 -1.49057 46 24 476
6.92342 -9.0293 -1.89588 47 25 476
7.69413 -10.0344 -2.08199 49 26 476
9.23379 -12.0424 -2.47142 48 27 476
10.0056 -13.049 -2.6456 60 28 476
7.70087 -10.0432 -2.01354 60 29 476
5.39495 -7.03592 -1.39317 59 30 476
3.85716 -5.03039 -0.984723 53 31 476
5.39802 -7.03993 -1.36066 60 32 476
10.0198 -13.0675 -2.49626 60 33 476
3.86045 -5.03468 -0.949305 51 34 476
13.1073 -17.0941 -3.18472 66 35 476
3.09184 -4.03228 -0.741269 52 36 476
6.17621 -8.05482 -1.46266 64 37 476
4.63569 -6.04572 -1.08291 64 38 476
5.40813 -7.05311 -1.24753 65 39 476
3.09506 -4.03648 -0.704002 63 40 476
nan nan nan 0 41 476
5.41229 -7.05853 -1.19787 61 42 476
7.72977 -10.0809 -1.68821 51 43 476
3.09812 -4.04047 -0.666698 62 44 476
3.87127 -5.04878 -0.821782 67 45 476
17.007 -22.18 -3.55566 83 46 476
27.0572 -35.2871 -5.57801 82 47 476
39.4314 -51.4252 -8.0027 84 48 476
38.6667 -50.4279 -7.73493 84 49 476
38.6757 -50.4396 -7.61291 80 50 476
41.0042 -53.4764 -7.95198 84 51 476
41.0134 -53.4884 -7.82259 83 52 476
41.0217 -53.4991 -7.70494 86 53 476
39.4826 -51.4919 -7.28969 86 54 476
37.942 -49.4827 -6.89506 87 55 476
36.4014 -47.4735 -6.49886 84 56 476
37.1827 -48.4925 -6.53046 84 57 476
35.641 -46.4819 -6.14598 85 58 476
37.9717 -49.5215 -6.4378 81 59 476
34.8796 -45.4888 -5.80235 84 60 476
34.8857 -45.4968 -5.70229 87 61 476
34.1171 -44.4944 -5.46798 87 62 476
34.1229 -44.502 -5.37011 89 63 476
34.1291 -44.5101 -5.26244 88 64 476
34.9102 -45.5288 -5.28188 88 65 476
34.9163 -45.5367 -5.17172 88 66 476
36.4734 -47.5675 -5.29691 87 67 476
38.8074 -50.6114 -5.51249 92 68 476
34.9328 -45.5583 -4.86118 92 69 476
26.4002 -34.4302 -3.58991 92 70 476
21.746 -28.3605 -2.89425 92 71 476
15.5379 -20.264 -2.01864 93 72 476
17.0931 -22.2922 -2.17136 92 73 476
13.9889 -18.2439 -1.73265 95 74 476
17.0978 -22.2984 -2.06839 94 75 476
15.5464 -20.2752 -1.83141 96 76 476
14.7714 -19.2644 -1.69752 96 77 476
13.2192 -17.2401 -1.47724 99 78 476
13.9979 -18.2556 -1.52393 98 79 476
13.2224 -17.2443 -1.39761 99 80 476
13.2239 -17.2462 -1.35968 98 81 476
11.6706 -15.2204 -1.16301 97 82 476
10.1168 -13.194 -0.979042 97 83 476
11.6731 -15.2237 -1.0927 99 84 476
10.8966 -14.211 -0.988657 98 85 476
10.12 -13.1981 -0.886169 99 86 476
10.1209 -13.1993 -0.857141 101 87 476
9.34396 -12.1861 -0.761786 100 88 476
7.78881 -10.1579 -0.612606 98 89 476
10.9017 -14.2176 -0.822966 98 90 476
12.4587 -16.2483 -0.9047 99 91 476
10.9034 -14.2199 -0.757295 102 92 476
9.34778 -12.1911 -0.622389 102 93 476
14.0182 -18.2821 -0.889052 102 94 476
20.2458 -26.4039 -1.22586 102 95 476
26.4742 -34.5268 -1.51935 102 96 476
28.8111 -37.5745 -1.57073 102 97 476
28.0344 -36.5616 -1.43984 101 98 476
28.0359 -36.5635 -1.35942 101 99 476
32.7088 -42.6578 -1.48272 101 100 476
31.1531 -40.6289 -1.32278 104 101 476
30.376 -39.6154 -1.19388 104 102 476
32.7132 -42.6635 -1.19186 104 103 476
33.4932 -43.6808 -1.11456 103 104 476
33.4944 -43.6823 -1.01849 102 105 476
34.2743 -44.6994 -0.934027 101 106 476
33.4964 -43.685 -0.816727 101 107 476
34.2761 -44.7018 -0.727571 100 108 476
31.1616 -40.6399 -0.572065 101 109 476
28.8257 -37.5936 -0.438224 100 110 476
28.0473 -36.5784 -0.345936 100 111 476
27.2688 -35.5631 -0.250293 101 112 476
28.8267 -37.5949 -0.181906 96 113 476
28.048 -36.5793 -0.088496 99 114 476
29.6058 -38.6109 -0.0084919 99 115 476
28.8269 -37.5951 0.0826849 97 116 476
28.8268 -37.595 0.16537 97 117 476
20.2592 -26.4214 0.180142 98 118 476
14.8071 -19.3109 0.174136 98 119 476
7.01858 -9.1534 0.104687 98 120 476
7.79727 -10.169 0.138669 99 121 476
7.79709 -10.1687 0.16327 99 122 476
7.01813 -9.15282 0.167093 100 123 476
7.01792 -9.15255 0.189236 99 124 476
4.68152 -6.10548 0.139668 98 125 476
4.68134 -6.10526 0.154438 98 126 476
6.23852 -8.13608 0.223712 98 127 476
7.01689 -9.1512 0.273775 99 128 476
7.7952 -10.1662 0.326514 99 129 476
10.1305 -13.2119 0.456318 96 130 476
10.13 -13.2112 0.485374 96 131 476
10.9079 -14.2257 0.557095 97 132 476
10.1289 -13.2097 0.546389 97 133 476
8.57142 -11.1786 0.48945 96 134 476
7.79254 -10.1628 0.467354 97 135 476
7.01369 -9.14703 0.442803 96 136 476
7.79145 -10.1614 0.514289 94 137 476
7.79083 -10.1606 0.538871 94 138 476
6.23402 -8.13021 0.449105 95 139 476
9.34567 -12.1883 0.702817 95 140 476
7.01096 -9.14347 0.547395 95 141 476
12.4557 -16.2443 1.01189 95 142 476
17.1216 -22.3295 1.44019 95 143 476
23.342 -30.4419 2.03727 95 144 476
23.3398 -30.4391 2.10422 95 145 476
23.3373 -30.4358 2.17785 93 146 476
21.7799 -28.4047 2.09519 92 147 476
19.4451 -25.3597 1.93216 92 148 476
20.9978 -27.3846 2.14689 93 149 476
22.5497 -29.4086 2.377 93 150 476
23.3243 -30.4189 2.52584 93 151 476
23.3214 -30.415 2.59943 95 152 476
22.5416 -29.398 2.57748 94 153 476
23.3154 -30.4072 2.73989 92 154 476
18.6518 -24.3251 2.24563 92 155 476
23.3091 -30.399 2.88031 91 156 476
22.5295 -29.3822 2.84896 92 157 476
23.3026 -30.3904 3.02069 92 158 476
23.2993 -30.3862 3.08752 93 159 476
25.6243 -33.4184 3.47701 92 160 476
26.3967 -34.4257 3.65806 88 161 476
23.2885 -30.3721 3.30133 86 162 476
24.0608 -31.3793 3.48035 92 163 476
26.3838 -34.409 3.90029 90 164 476
22.5016 -29.3459 3.39146 90 165 476
13.192 -17.2046 2.03029 91 166 476
6.98714 -9.1124 1.09556 90 167 476
1.55948 -2.03382 0.249487 90 168 476
5.43452 -7.08753 0.88516 89 169 476
2.33382 -3.0437 0.387564 88 170 476
0.783856 -1.02228 0.132442 84 171 476
3.10756 -4.05279 0.534971 86 172 476
6.97939 -9.10229 1.22175 90 173 476
4.65499 -6.07089 0.82972 90 174 476
7.75079 -10.1083 1.40402 91 175 476
2.33109 -3.04013 0.429713 90 176 476
1.55678 -2.0303 0.291498 87 177 476
7.74589 -10.1019 1.47514 84 178 476
6.97079 -9.09108 1.3478 87 179 476
9.28925 -12.1147 1.82579 89 180 476
3.87499 -5.05364 0.772901 89 181 476
3.10108 -4.04433 0.628468 89 182 476
3.87324 -5.05136 0.796236 89 183 476
6.96291 -9.0808 1.45371 88 184 476
7.73383 -10.0862 1.63721 89 185 476
6.18733 -8.06932 1.32967 86 186 476
6.95802 -9.07442 1.5156 86 187 476
6.18433 -8.0654 1.36693 83 188 476
6.95459 -9.06995 1.5575 87 189 476
10.0389 -13.0924 2.2805 79 190 476
10.0364 -13.0892 2.30929 79 191 476
25.9509 -33.7467 -9.11088 17 0 484
25.9606 -33.7592 -9.03657 18 1 484
30.5527 -39.7308 -10.5345 18 2 484
24.4528 -31.7986 -8.35822 18 3 484
27.5193 -35.7862 -9.31597 18 4 484
26.0003 -33.8108 -8.72415 18 5 484
27.5399 -35.813 -9.15044 18 6 484
26.0196 -33.8359 -8.56777 19 7 484
26.7949 -34.8441 -8.7353 21 8 484
24.5074 -31.8695 -7.91666 20 9 484
23.7507 -30.8856 -7.59456 19 10 484
22.9927 -29.8997 -7.28385 19 11 484
19.9355 -25.9242 -6.25028 19 12 484
23.0088 -29.9207 -7.14556 19 13 484
30.6865 -39.9048 -9.42985 19 14 484
30.6965 -39.9178 -9.34198 20 15 484
32.2423 -41.9279 -9.70742 20 16 484
27.6463 -35.9514 -8.24189 19 17 484
30.7278 -39.9585 -9.0606 20 18 484
24.5917 -31.9791 -7.17861 25 19 484
19.9892 -25.9941 -5.77017 19 20 484
23.8389 -31.0002 -6.81108 35 21 484
18.4641 -24.0108 -5.21553 42 22 484
14.6236 -19.0166 -4.08763 46 23 484
7.70343 -10.0176 -2.12832 46 24 484
9.24502 -12.0223 -2.52702 45 25 484
9.24796 -12.0261 -2.4979 48 26 484
10.7909 -14.0325 -2.88292 48 27 484
11.5646 -15.0386 -3.05225 38 28 484
8.48547 -11.0345 -2.21466 49 29 484
6.17559 -8.03076 -1.59186 48 30 484
4.63521 -6.02765 -1.18121 53 31 484
5.40785 -7.03238 -1.36066 52 32 484
9.26661 -12.0503 -2.30441 53 33 484
4.63916 -6.03278 -1.13872 45 34 484
11.5874 -15.0682 -2.8103 62 35 484
4.64168 -6.03605 -1.11082 52 36 484
6.18745 -8.04619 -1.46266 61 37 484
5.41664 -7.04382 -1.26304 61 38 484
6.19068 -8.05038 -1.42545 60 39 484
4.64652 -6.04235 -1.05498 57 40 484
nan nan nan 50 41 484
6.19544 -8.05657 -1.36871 59 42 484
9.29079 -12.0818 -2.02546 51 43 484
nan nan nan 56 44 484
5.42601 -7.056 -1.14973 61 45 484
19.3601 -25.1759 -4.04026 78 46 484
28.6548 -37.2629 -5.89664 82 47 484
41.052 -53.3842 -8.31646 84 48 484
40.2862 -52.3884 -8.04425 84 49 484
40.2956 -52.4005 -7.91736 80 50 484
41.8537 -54.4268 -8.10198 84 51 484
44.1884 -57.4627 -8.41284 83 52 484
43.422 -56.4662 -8.14097 86 53 484
41.1053 -53.4534 -7.57549 86 54 484
39.5622 -51.4468 -7.17643 87 55 484
38.0191 -49.4401 -6.77534 84 56 484
38.8021 -50.4584 -6.80249 84 57 484
37.2579 -48.4503 -6.41313 85 58 484
38.817 -50.4778 -6.56915 81 59 484
37.272 -48.4686 -6.18907 84 60 484
36.5021 -47.4674 -5.95566 87 61 484
35.7324 -46.4665 -5.71645 87 62 484
35.7384 -46.4744 -5.61414 89 63 484
35.7449 -46.4828 -5.50157 88 64 484
36.5277 -47.5008 -5.51657 88 65 484
36.5341 -47.5091 -5.40152 88 66 484
38.0943 -49.538 -5.52225 87 67 484
39.6554 -51.5681 -5.62271 92 68 484
36.5514 -47.5316 -5.07718 92 69 484
28.7811 -37.427 -3.90656 92 70 484
24.1188 -31.3642 -3.20421 92 71 484
17.8997 -23.2768 -2.32126 93 72 484
20.236 -26.315 -2.56595 92 73 484
14.7925 -19.2362 -1.82884 92 74 484
17.9071 -23.2864 -2.16236 89 75 484
17.1313 -22.2776 -2.01444 93 76 484
16.355 -21.2681 -1.8761 93 77 484
14.8002 -19.2463 -1.65091 93 78 484
14.802 -19.2485 -1.60854 95 79 484
14.0252 -18.2384 -1.47976 97 80 484
14.8055 -19.2531 -1.51953 96 81 484
13.2495 -17.2297 -1.31795 94 82 484
10.9141 -14.1928 -1.05429 96 83 484
14.0314 -18.2465 -1.31107 96 84 484
13.2537 -17.2351 -1.20033 97 85 484
12.4759 -16.2237 -1.09049 97 86 484
12.477 -16.2252 -1.05476 97 87 484
11.6989 -15.2133 -0.952047 98 88 484
10.1411 -13.1876 -0.796172 98 89 484
13.2599 -17.2432 -0.999169 98 90 484
12.4814 -16.2309 -0.9047 99 91 484
11.7029 -15.2184 -0.811342 99 92 484
10.9241 -14.2057 -0.726019 99 93 484
16.3828 -21.3042 -1.03713 102 94 484
22.6218 -29.4175 -1.36724 102 95 484
28.8618 -37.532 -1.65336 102 96 484
31.9829 -41.5907 -1.74048 102 97 484
29.6452 -38.5507 -1.5198 101 98 484
29.6468 -38.5528 -1.43492 101 99 484
34.3283 -44.6406 -1.55331 101 100 484
32.7699 -42.614 -1.3889 104 101 484
31.9914 -41.6017 -1.25509 104 102 484
34.3329 -44.6467 -1.2486 104 103 484
35.1144 -45.6629 -1.16638 103 104 484
